   1.00047    0.13862   -0.19950
   0.65323   -0.38202    0.72691
   0.43174    0.41483    0.22228
   0.41179   -0.17069    0.25186
   1.00515    0.13727   -0.20719
   0.65132   -0.38140    0.73305
   0.42742    0.41422    0.23015
   0.41325   -0.16931    0.24552
   1.00988    0.13591   -0.21492
   0.64945   -0.38081    0.73924
   0.42307    0.41371    0.23804
   0.41464   -0.16800    0.23914
   1.01466    0.13453   -0.22266
   0.64763   -0.38025    0.74548
   0.41869    0.41331    0.24595
   0.41597   -0.16675    0.23270
   1.01949    0.13314   -0.23042
   0.64585   -0.37970    0.75177
   0.41428    0.41301    0.25388
   0.41724   -0.16558    0.22622
   1.02436    0.13174   -0.23820
   0.64411   -0.37917    0.75810
   0.40985    0.41281    0.26184
   0.41847   -0.16447    0.21968
   1.02927    0.13032   -0.24598
   0.64241   -0.37865    0.76446
   0.40539    0.41270    0.26981
   0.41963   -0.16344    0.21310
   1.03422    0.12889   -0.25377
   0.64076   -0.37816    0.77086
   0.40090    0.41270    0.27780
   0.42075   -0.16247    0.20646
   1.03920    0.12744   -0.26156
   0.63914   -0.37767    0.77730
   0.39640    0.41279    0.28581
   0.42183   -0.16158    0.19977
   1.04420    0.12598   -0.26935
   0.63757   -0.37719    0.78376
   0.39187    0.41298    0.29385
   0.42286   -0.16076    0.19303
   1.04923    0.12451   -0.27712
   0.63604   -0.37673    0.79024
   0.38733    0.41326    0.30190
   0.42384   -0.16002    0.18624
   1.05429    0.12302   -0.28489
   0.63454   -0.37627    0.79675
   0.38277    0.41364    0.30998
   0.42479   -0.15934    0.17938
   1.05935    0.12152   -0.29263
   0.63308   -0.37581    0.80327
   0.37820    0.41410    0.31808
   0.42570   -0.15874    0.17248
   1.06443    0.12000   -0.30035
   0.63167   -0.37536    0.80980
   0.37361    0.41464    0.32619
   0.42658   -0.15821    0.16551
   1.06952    0.11848   -0.30805
   0.63029   -0.37491    0.81634
   0.36902    0.41527    0.33433
   0.42742   -0.15774    0.15849
   1.07461    0.11693   -0.31571
   0.62895   -0.37446    0.82288
   0.36441    0.41599    0.34249
   0.42824   -0.15735    0.15142
   1.07971    0.11538   -0.32333
   0.62764   -0.37401    0.82942
   0.35980    0.41678    0.35066
   0.42902   -0.15703    0.14429
   1.08480    0.11381   -0.33090
   0.62638   -0.37356    0.83596
   0.35518    0.41764    0.35885
   0.42978   -0.15677    0.13710
   1.08989    0.11222   -0.33843
   0.62516   -0.37310    0.84248
   0.35056    0.41858    0.36706
   0.43051   -0.15658    0.12986
   1.09496    0.11063   -0.34591
   0.62397   -0.37264    0.84899
   0.34594    0.41959    0.37528
   0.43122   -0.15645    0.12256
   1.10002    0.10902   -0.35332
   0.62282   -0.37216    0.85548
   0.34132    0.42067    0.38351
   0.43191   -0.15638    0.11522
   1.10506    0.10740   -0.36067
   0.62171   -0.37168    0.86194
   0.33670    0.42181    0.39176
   0.43258   -0.15638    0.10781
   1.11008    0.10576   -0.36795
   0.62065   -0.37119    0.86838
   0.33209    0.42300    0.40002
   0.43322   -0.15644    0.10036
   1.11507    0.10412   -0.37516
   0.61961   -0.37068    0.87478
   0.32748    0.42426    0.40828
   0.43385   -0.15655    0.09286
   1.12004    0.10245   -0.38228
   0.61862   -0.37016    0.88114
   0.32289    0.42557    0.41655
   0.43447   -0.15673    0.08531
   1.12497    0.10078   -0.38932
   0.61767   -0.36962    0.88746
   0.31831    0.42692    0.42482
   0.43507   -0.15695    0.07771
   1.12986    0.09910   -0.39626
   0.61676   -0.36907    0.89373
   0.31374    0.42833    0.43309
   0.43565   -0.15723    0.07007
   1.13472    0.09740   -0.40312
   0.61589   -0.36850    0.89995
   0.30919    0.42978    0.44137
   0.43622   -0.15756    0.06239
   1.13953    0.09569   -0.40987
   0.61506   -0.36791    0.90611
   0.30466    0.43126    0.44963
   0.43678   -0.15794    0.05467
   1.14429    0.09398   -0.41651
   0.61427   -0.36730    0.91220
   0.30016    0.43279    0.45790
   0.43733   -0.15837    0.04691
   1.14900    0.09225   -0.42304
   0.61352   -0.36666    0.91823
   0.29567    0.43434    0.46615
   0.43786   -0.15884    0.03912
   1.15365    0.09051   -0.42945
   0.61281   -0.36601    0.92419
   0.29122    0.43593    0.47438
   0.43839   -0.15936    0.03129
   1.15825    0.08876   -0.43574
   0.61215   -0.36533    0.93007
   0.28679    0.43754    0.48261
   0.43890   -0.15992    0.02344
   1.16279    0.08700   -0.44191
   0.61152   -0.36462    0.93587
   0.28239    0.43918    0.49081
   0.43941   -0.16052    0.01555
   1.16726    0.08523   -0.44794
   0.61094   -0.36389    0.94158
   0.27803    0.44083    0.49899
   0.43990   -0.16115    0.00765
   1.17166    0.08345   -0.45384
   0.61040   -0.36313    0.94720
   0.27371    0.44250    0.50714
   0.44039   -0.16182   -0.00027
   1.17599    0.08166   -0.45959
   0.60991   -0.36234    0.95273
   0.26943    0.44418    0.51526
   0.44087   -0.16253   -0.00821
   1.18025    0.07987   -0.46520
   0.60946   -0.36153    0.95815
   0.26518    0.44587    0.52335
   0.44134   -0.16326   -0.01617
   1.18443    0.07807   -0.47065
   0.60905   -0.36068    0.96347
   0.26099    0.44757    0.53140
   0.44180   -0.16403   -0.02413
   1.18853    0.07626   -0.47596
   0.60869   -0.35980    0.96868
   0.25684    0.44928    0.53941
   0.44225   -0.16482   -0.03210
   1.19254    0.07445   -0.48110
   0.60837   -0.35890    0.97378
   0.25273    0.45098    0.54738
   0.44270   -0.16565   -0.04007
   1.19647    0.07263   -0.48607
   0.60810   -0.35796    0.97876
   0.24869    0.45268    0.55530
   0.44314   -0.16649   -0.04804
   1.20031    0.07080   -0.49088
   0.60787   -0.35699    0.98362
   0.24469    0.45437    0.56316
   0.44356   -0.16736   -0.05600
   1.20406    0.06897   -0.49551
   0.60769   -0.35598    0.98835
   0.24075    0.45606    0.57097
   0.44398   -0.16825   -0.06395
   1.20771    0.06714   -0.49997
   0.60755   -0.35494    0.99295
   0.23687    0.45773    0.57872
   0.44440   -0.16916   -0.07189
   1.21127    0.06530   -0.50424
   0.60746   -0.35387    0.99741
   0.23305    0.45939    0.58641
   0.44480   -0.17009   -0.07982
   1.21473    0.06346   -0.50833
   0.60742   -0.35276    1.00174
   0.22930    0.46103    0.59403
   0.44519   -0.17103   -0.08772
   1.21809    0.06162   -0.51223
   0.60742   -0.35162    1.00593
   0.22561    0.46266    0.60157
   0.44558   -0.17199   -0.09560
   1.22134    0.05977   -0.51594
   0.60747   -0.35044    1.00996
   0.22199    0.46426    0.60904
   0.44595   -0.17296   -0.10344
   1.22449    0.05793   -0.51945
   0.60757   -0.34923    1.01385
   0.21844    0.46583    0.61643
   0.44632   -0.17394   -0.11126
   1.22752    0.05609   -0.52276
   0.60772   -0.34798    1.01759
   0.21496    0.46738    0.62373
   0.44667   -0.17493   -0.11903
   1.23045    0.05425   -0.52587
   0.60791   -0.34669    1.02117
   0.21156    0.46890    0.63095
   0.44701   -0.17593   -0.12677
   1.23327    0.05240   -0.52877
   0.60816   -0.34537    1.02459
   0.20824    0.47039    0.63808
   0.44735   -0.17694   -0.13446
   1.23597    0.05057   -0.53146
   0.60845   -0.34402    1.02784
   0.20499    0.47184    0.64511
   0.44767   -0.17795   -0.14210
   1.23856    0.04873   -0.53394
   0.60879   -0.34262    1.03093
   0.20182    0.47326    0.65204
   0.44797   -0.17897   -0.14969
   1.24103    0.04690   -0.53621
   0.60918   -0.34119    1.03385
   0.19874    0.47464    0.65887
   0.44827   -0.17998   -0.15722
   1.24338    0.04507   -0.53825
   0.60962   -0.33972    1.03660
   0.19574    0.47597    0.66560
   0.44855   -0.18100   -0.16469
   1.24561    0.04325   -0.54008
   0.61011   -0.33822    1.03917
   0.19283    0.47727    0.67221
   0.44882   -0.18202   -0.17209
   1.24772    0.04143   -0.54168
   0.61064   -0.33668    1.04156
   0.19000    0.47852    0.67871
   0.44907   -0.18304   -0.17942
   1.24970    0.03963   -0.54306
   0.61123   -0.33511    1.04377
   0.18727    0.47972    0.68509
   0.44930   -0.18405   -0.18668
   1.25156    0.03783   -0.54421
   0.61187   -0.33350    1.04580
   0.18462    0.48087    0.69135
   0.44952   -0.18506   -0.19387
   1.25330    0.03603   -0.54513
   0.61255   -0.33185    1.04765
   0.18207    0.48198    0.69749
   0.44973   -0.18606   -0.20097
   1.25491    0.03425   -0.54582
   0.61329   -0.33017    1.04931
   0.17961    0.48303    0.70350
   0.44992   -0.18706   -0.20799
   1.25640    0.03248   -0.54628
   0.61407   -0.32845    1.05077
   0.17725    0.48403    0.70938
   0.45008   -0.18805   -0.21492
   1.25775    0.03072   -0.54651
   0.61491   -0.32670    1.05205
   0.17499    0.48497    0.71513
   0.45023   -0.18903   -0.22176
   1.25898    0.02897   -0.54649
   0.61579   -0.32491    1.05313
   0.17282    0.48586    0.72074
   0.45036   -0.19000   -0.22851
   1.26009    0.02723   -0.54625
   0.61673   -0.32309    1.05402
   0.17075    0.48669    0.72620
   0.45048   -0.19095   -0.23516
   1.26106    0.02551   -0.54576
   0.61771   -0.32124    1.05471
   0.16879    0.48745    0.73153
   0.45056   -0.19190   -0.24171
   1.26190    0.02380   -0.54503
   0.61875   -0.31936    1.05521
   0.16692    0.48816    0.73671
   0.45063   -0.19283   -0.24815
   1.26262    0.02211   -0.54407
   0.61983   -0.31744    1.05550
   0.16516    0.48881    0.74175
   0.45068   -0.19375   -0.25448
   1.26320    0.02043   -0.54286
   0.62096   -0.31549    1.05560
   0.16350    0.48939    0.74663
   0.45070   -0.19466   -0.26071
   1.26366    0.01877   -0.54142
   0.62214   -0.31351    1.05550
   0.16194    0.48991    0.75136
   0.45070   -0.19554   -0.26682
   1.26398    0.01713   -0.53973
   0.62337   -0.31150    1.05519
   0.16049    0.49037    0.75593
   0.45067   -0.19641   -0.27281
   1.26418    0.01550   -0.53780
   0.62465   -0.30946    1.05469
   0.15915    0.49076    0.76035
   0.45062   -0.19727   -0.27869
   1.26425    0.01390   -0.53564
   0.62598   -0.30739    1.05398
   0.15791    0.49108    0.76461
   0.45054   -0.19810   -0.28444
   1.26419    0.01231   -0.53322
   0.62736   -0.30529    1.05306
   0.15677    0.49134    0.76870
   0.45044   -0.19892   -0.29008
   1.26401    0.01075   -0.53057
   0.62878   -0.30317    1.05195
   0.15575    0.49153    0.77263
   0.45031   -0.19971   -0.29558
   1.26369    0.00920   -0.52768
   0.63025   -0.30102    1.05063
   0.15483    0.49164    0.77640
   0.45015   -0.20048   -0.30096
   1.26326    0.00768   -0.52455
   0.63177   -0.29884    1.04911
   0.15402    0.49169    0.77999
   0.44996   -0.20124   -0.30620
   1.26269    0.00618   -0.52118
   0.63334   -0.29664    1.04739
   0.15331    0.49167    0.78342
   0.44974   -0.20197   -0.31131
   1.26200    0.00471   -0.51757
   0.63495   -0.29441    1.04547
   0.15271    0.49158    0.78668
   0.44949   -0.20267   -0.31629
   1.26119    0.00326   -0.51373
   0.63661   -0.29217    1.04334
   0.15222    0.49142    0.78977
   0.44921   -0.20336   -0.32113
   1.26026    0.00183   -0.50965
   0.63831   -0.28989    1.04102
   0.15184    0.49119    0.79268
   0.44890   -0.20402   -0.32584
   1.25920    0.00043   -0.50533
   0.64006   -0.28760    1.03849
   0.15157    0.49089    0.79542
   0.44855   -0.20465   -0.33040
   1.25803   -0.00094   -0.50078
   0.64185   -0.28529    1.03577
   0.15140    0.49052    0.79798
   0.44817   -0.20526   -0.33483
   1.25673   -0.00229   -0.49600
   0.64369   -0.28296    1.03285
   0.15134    0.49007    0.80037
   0.44776   -0.20585   -0.33911
   1.25532   -0.00361   -0.49099
   0.64558   -0.28061    1.02973
   0.15138    0.48955    0.80259
   0.44732   -0.20641   -0.34325
   1.25380   -0.00490   -0.48576
   0.64750   -0.27825    1.02642
   0.15153    0.48897    0.80462
   0.44684   -0.20694   -0.34724
   1.25216   -0.00616   -0.48029
   0.64947   -0.27586    1.02292
   0.15179    0.48831    0.80648
   0.44632   -0.20745   -0.35110
   1.25041   -0.00740   -0.47461
   0.65148   -0.27347    1.01922
   0.15215    0.48758    0.80816
   0.44577   -0.20793   -0.35480
   1.24855   -0.00860   -0.46870
   0.65353   -0.27106    1.01534
   0.15261    0.48678    0.80967
   0.44518   -0.20838   -0.35836
   1.24658   -0.00977   -0.46257
   0.65563   -0.26863    1.01126
   0.15317    0.48591    0.81099
   0.44456   -0.20880   -0.36177
   1.24451   -0.01091   -0.45623
   0.65776   -0.26620    1.00701
   0.15384    0.48497    0.81214
   0.44389   -0.20920   -0.36504
   1.24233   -0.01202   -0.44967
   0.65994   -0.26375    1.00257
   0.15461    0.48396    0.81311
   0.44319   -0.20957   -0.36816
   1.24005   -0.01310   -0.44290
   0.66215   -0.26130    0.99795
   0.15547    0.48289    0.81391
   0.44245   -0.20991   -0.37114
   1.23767   -0.01414   -0.43593
   0.66441   -0.25884    0.99315
   0.15644    0.48174    0.81452
   0.44168   -0.21022   -0.37396
   1.23519   -0.01516   -0.42875
   0.66670   -0.25637    0.98818
   0.15750    0.48053    0.81497
   0.44086   -0.21050   -0.37664
   1.23262   -0.01614   -0.42136
   0.66902   -0.25389    0.98304
   0.15866    0.47925    0.81523
   0.44000   -0.21075   -0.37918
   1.22995   -0.01708   -0.41378
   0.67139   -0.25141    0.97773
   0.15991    0.47790    0.81533
   0.43911   -0.21098   -0.38157
   1.22719   -0.01800   -0.40601
   0.67379   -0.24893    0.97225
   0.16125    0.47649    0.81525
   0.43817   -0.21117   -0.38382
   1.22435   -0.01887   -0.39804
   0.67623   -0.24645    0.96661
   0.16269    0.47502    0.81500
   0.43719   -0.21134   -0.38592
   1.22142   -0.01972   -0.38989
   0.67870   -0.24396    0.96081
   0.16422    0.47348    0.81457
   0.43618   -0.21148   -0.38788
   1.21841   -0.02053   -0.38155
   0.68120   -0.24148    0.95486
   0.16583    0.47188    0.81398
   0.43512   -0.21159   -0.38970
   1.21531   -0.02130   -0.37303
   0.68374   -0.23899    0.94875
   0.16753    0.47021    0.81322
   0.43402   -0.21166   -0.39138
   1.21214   -0.02204   -0.36434
   0.68630   -0.23651    0.94249
   0.16932    0.46849    0.81230
   0.43288   -0.21172   -0.39291
   1.20889   -0.02274   -0.35547
   0.68890   -0.23404    0.93609
   0.17118    0.46671    0.81121
   0.43171   -0.21174   -0.39432
   1.20558   -0.02341   -0.34644
   0.69154   -0.23156    0.92955
   0.17313    0.46487    0.80995
   0.43049   -0.21173   -0.39558
   1.20219   -0.02404   -0.33724
   0.69420   -0.22910    0.92287
   0.17516    0.46297    0.80854
   0.42922   -0.21169   -0.39671
   1.19873   -0.02464   -0.32789
   0.69689   -0.22664    0.91606
   0.17726    0.46102    0.80697
   0.42792   -0.21163   -0.39771
   1.19521   -0.02520   -0.31838
   0.69960   -0.22420    0.90912
   0.17944    0.45902    0.80524
   0.42658   -0.21154   -0.39858
   1.19163   -0.02572   -0.30871
   0.70235   -0.22176    0.90205
   0.18168    0.45696    0.80336
   0.42520   -0.21142   -0.39932
   1.18800   -0.02621   -0.29891
   0.70512   -0.21933    0.89487
   0.18400    0.45485    0.80133
   0.42377   -0.21127   -0.39993
   1.18430   -0.02666   -0.28896
   0.70792   -0.21692    0.88756
   0.18639    0.45269    0.79915
   0.42231   -0.21109   -0.40042
   1.18056   -0.02708   -0.27888
   0.71074   -0.21452    0.88015
   0.18884    0.45049    0.79683
   0.42081   -0.21089   -0.40079
   1.17677   -0.02746   -0.26867
   0.71359   -0.21213    0.87263
   0.19135    0.44823    0.79436
   0.41927   -0.21066   -0.40104
   1.17293   -0.02781   -0.25833
   0.71645   -0.20977    0.86501
   0.19393    0.44594    0.79175
   0.41768   -0.21040   -0.40117
   1.16904   -0.02812   -0.24787
   0.71935   -0.20742    0.85729
   0.19656    0.44360    0.78900
   0.41606   -0.21012   -0.40118
   1.16512   -0.02839   -0.23730
   0.72226   -0.20508    0.84948
   0.19925    0.44122    0.78611
   0.41440   -0.20981   -0.40109
   1.16116   -0.02863   -0.22661
   0.72519   -0.20277    0.84158
   0.20198    0.43879    0.78310
   0.41270   -0.20948   -0.40088
   1.15716   -0.02884   -0.21582
   0.72815   -0.20048    0.83360
   0.20477    0.43633    0.77996
   0.41097   -0.20912   -0.40057
   1.15314   -0.02901   -0.20493
   0.73112   -0.19821    0.82555
   0.20761    0.43384    0.77669
   0.40920   -0.20873   -0.40015
   1.14908   -0.02914   -0.19395
   0.73411   -0.19597    0.81741
   0.21049    0.43131    0.77330
   0.40739   -0.20832   -0.39964
   1.14500   -0.02924   -0.18288
   0.73712   -0.19375    0.80921
   0.21341    0.42875    0.76979
   0.40554   -0.20788   -0.39902
   1.14090   -0.02931   -0.17172
   0.74014   -0.19155    0.80095
   0.21637    0.42616    0.76617
   0.40366   -0.20743   -0.39831
   1.13679   -0.02934   -0.16049
   0.74319   -0.18939    0.79263
   0.21937    0.42353    0.76243
   0.40174   -0.20694   -0.39751
   1.13265   -0.02934   -0.14919
   0.74624   -0.18725    0.78426
   0.22239    0.42089    0.75859
   0.39979   -0.20644   -0.39662
   1.12850   -0.02931   -0.13782
   0.74931   -0.18514    0.77584
   0.22545    0.41821    0.75465
   0.39781   -0.20591   -0.39564
   1.12435   -0.02925   -0.12639
   0.75239   -0.18306    0.76738
   0.22854    0.41552    0.75060
   0.39579   -0.20536   -0.39458
   1.12019   -0.02915   -0.11490
   0.75549   -0.18101    0.75888
   0.23165    0.41280    0.74645
   0.39374   -0.20479   -0.39343
   1.11602   -0.02902   -0.10337
   0.75859   -0.17899    0.75035
   0.23478    0.41007    0.74222
   0.39165   -0.20420   -0.39222
   1.11186   -0.02886   -0.09179
   0.76171   -0.17701    0.74179
   0.23793    0.40732    0.73789
   0.38954   -0.20359   -0.39092
   1.10769   -0.02867   -0.08018
   0.76484   -0.17506    0.73321
   0.24110    0.40456    0.73348
   0.38740   -0.20296   -0.38956
   1.10354   -0.02844   -0.06853
   0.76797   -0.17315    0.72462
   0.24427    0.40178    0.72898
   0.38522   -0.20231   -0.38813
   1.09939   -0.02819   -0.05686
   0.77111   -0.17128    0.71601
   0.24746    0.39899    0.72441
   0.38302   -0.20164   -0.38663
   1.09526   -0.02791   -0.04518
   0.77426   -0.16945    0.70740
   0.25065    0.39620    0.71976
   0.38078   -0.20095   -0.38508
   1.09114   -0.02759   -0.03347
   0.77742   -0.16765    0.69879
   0.25384    0.39340    0.71505
   0.37852   -0.20024   -0.38346
   1.08705   -0.02725   -0.02177
   0.78058   -0.16590    0.69018
   0.25704    0.39059    0.71026
   0.37624   -0.19952   -0.38179
   1.08297   -0.02688   -0.01006
   0.78375   -0.16419    0.68158
   0.26023    0.38778    0.70542
   0.37392   -0.19878   -0.38006
   1.07892   -0.02648    0.00165
   0.78692   -0.16252    0.67300
   0.26342    0.38498    0.70051
   0.37158   -0.19803   -0.37829
   1.07490   -0.02606    0.01335
   0.79010   -0.16089    0.66443
   0.26659    0.38217    0.69555
   0.36922   -0.19726   -0.37647
   1.07091   -0.02560    0.02503
   0.79328   -0.15932    0.65589
   0.26975    0.37938    0.69054
   0.36683   -0.19647   -0.37460
   1.06696   -0.02512    0.03668
   0.79646   -0.15778    0.64738
   0.27290    0.37658    0.68548
   0.36442   -0.19567   -0.37270
   1.06305   -0.02461    0.04831
   0.79963   -0.15630    0.63891
   0.27603    0.37380    0.68038
   0.36198   -0.19486   -0.37075
   1.05917   -0.02407    0.05991
   0.80281   -0.15487    0.63047
   0.27914    0.37103    0.67523
   0.35953   -0.19403   -0.36878
   1.05535   -0.02351    0.07147
   0.80599   -0.15349    0.62208
   0.28222    0.36827    0.67005
   0.35705   -0.19319   -0.36676
   1.05157   -0.02292    0.08298
   0.80917   -0.15216    0.61373
   0.28527    0.36553    0.66484
   0.35455   -0.19235   -0.36472
   1.04784   -0.02230    0.09444
   0.81234   -0.15088    0.60544
   0.28830    0.36281    0.65960
   0.35202   -0.19149   -0.36265
   1.04417   -0.02166    0.10585
   0.81551   -0.14966    0.59721
   0.29129    0.36010    0.65433
   0.34948   -0.19061   -0.36056
   1.04056   -0.02099    0.11719
   0.81867   -0.14850    0.58903
   0.29424    0.35742    0.64904
   0.34692   -0.18973   -0.35845
   1.03700   -0.02029    0.12847
   0.82183   -0.14740    0.58093
   0.29716    0.35476    0.64374
   0.34434   -0.18884   -0.35631
   1.03352   -0.01956    0.13968
   0.82498   -0.14635    0.57289
   0.30003    0.35213    0.63841
   0.34175   -0.18795   -0.35416
   1.03010   -0.01881    0.15082
   0.82813   -0.14537    0.56493
   0.30285    0.34952    0.63307
   0.33913   -0.18704   -0.35199
   1.02675   -0.01802    0.16187
   0.83126   -0.14446    0.55705
   0.30563    0.34695    0.62773
   0.33650   -0.18613   -0.34981
   1.02348   -0.01721    0.17284
   0.83439   -0.14361    0.54924
   0.30836    0.34440    0.62237
   0.33385   -0.18521   -0.34762
   1.02029   -0.01636    0.18372
   0.83750   -0.14283    0.54153
   0.31103    0.34190    0.61702
   0.33119   -0.18428   -0.34542
   1.01718   -0.01548    0.19450
   0.84061   -0.14213    0.53390
   0.31364    0.33942    0.61166
   0.32851   -0.18335   -0.34321
   1.01415   -0.01457    0.20519
   0.84370   -0.14150    0.52636
   0.31620    0.33699    0.60630
   0.32581   -0.18242   -0.34100
   1.01122   -0.01363    0.21578
   0.84677   -0.14094    0.51892
   0.31869    0.33459    0.60095
   0.32310   -0.18148   -0.33879
   1.00838   -0.01264    0.22627
   0.84983   -0.14047    0.51157
   0.32112    0.33224    0.59561
   0.32038   -0.18054   -0.33657
   1.00563   -0.01162    0.23665
   0.85287   -0.14008    0.50432
   0.32349    0.32993    0.59027
   0.31764   -0.17959   -0.33436
   1.00298   -0.01056    0.24692
   0.85589   -0.13979    0.49717
   0.32578    0.32767    0.58495
   0.31489   -0.17864   -0.33215
   1.00044   -0.00945    0.25708
   0.85890   -0.13958    0.49012
   0.32800    0.32545    0.57963
   0.31212   -0.17770   -0.32994
   0.99800   -0.00829    0.26713
   0.86188   -0.13947    0.48318
   0.33015    0.32329    0.57434
   0.30934   -0.17675   -0.32774
   0.99567   -0.00708    0.27706
   0.86484   -0.13947    0.47634
   0.33222    0.32117    0.56906
   0.30655   -0.17580   -0.32555
   0.99346   -0.00581    0.28689
   0.86777   -0.13957    0.46960
   0.33422    0.31911    0.56380
   0.30375   -0.17485   -0.32336
   0.99136   -0.00448    0.29660
   0.87068   -0.13978    0.46296
   0.33613    0.31710    0.55856
   0.30093   -0.17390   -0.32118
   0.98938   -0.00308    0.30621
   0.87356   -0.14012    0.45642
   0.33796    0.31514    0.55334
   0.29810   -0.17295   -0.31902
   0.98753   -0.00161    0.31570
   0.87641   -0.14058    0.44997
   0.33971    0.31324    0.54815
   0.29526   -0.17200   -0.31687
   0.98580   -0.00007    0.32510
   0.87923   -0.14117    0.44362
   0.34137    0.31140    0.54298
   0.29241   -0.17106   -0.31473
   0.98419    0.00157    0.33440
   0.88202   -0.14190    0.43735
   0.34294    0.30962    0.53784
   0.28955   -0.17012   -0.31260
   0.98272    0.00329    0.34361
   0.88479   -0.14279    0.43116
   0.34443    0.30790    0.53272
   0.28668   -0.16918   -0.31049
   0.98138    0.00511    0.35273
   0.88752   -0.14383    0.42504
   0.34582    0.30624    0.52763
   0.28380   -0.16825   -0.30840
   0.98016    0.00704    0.36179
   0.89022   -0.14503    0.41898
   0.34712    0.30464    0.52257
   0.28091   -0.16732   -0.30633
   0.97908    0.00908    0.37078
   0.89289   -0.14640    0.41298
   0.34833    0.30311    0.51753
   0.27801   -0.16640   -0.30427
   0.97813    0.01123    0.37973
   0.89553   -0.14794    0.40700
   0.34944    0.30164    0.51253
   0.27510   -0.16548   -0.30223
   0.97730    0.01351    0.38864
   0.89815   -0.14966    0.40106
   0.35046    0.30023    0.50755
   0.27219   -0.16457   -0.30020
   0.97660    0.01590    0.39753
   0.90075   -0.15157    0.39512
   0.35138    0.29890    0.50260
   0.26926   -0.16366   -0.29820
   0.97602    0.01842    0.40641
   0.90334   -0.15366    0.38919
   0.35221    0.29763    0.49769
   0.26633   -0.16277   -0.29622
   0.97556    0.02106    0.41530
   0.90591   -0.15593    0.38324
   0.35293    0.29643    0.49280
   0.26338   -0.16187   -0.29426
   0.97521    0.02383    0.42420
   0.90847   -0.15838    0.37726
   0.35356    0.29529    0.48794
   0.26044   -0.16099   -0.29232
   0.97496    0.02671    0.43313
   0.91104   -0.16101    0.37125
   0.35410    0.29422    0.48312
   0.25748   -0.16011   -0.29040
   0.97482    0.02971    0.44209
   0.91360   -0.16382    0.36519
   0.35453    0.29323    0.47832
   0.25452   -0.15925   -0.28850
   0.97478    0.03283    0.45110
   0.91618   -0.16681    0.35908
   0.35487    0.29230    0.47355
   0.25155   -0.15839   -0.28662
   0.97483    0.03605    0.46016
   0.91876   -0.16996    0.35290
   0.35510    0.29144    0.46881
   0.24858   -0.15754   -0.28476
   0.97496    0.03938    0.46929
   0.92136   -0.17328    0.34667
   0.35524    0.29065    0.46410
   0.24560   -0.15669   -0.28292
   0.97519    0.04280    0.47847
   0.92397   -0.17675    0.34036
   0.35529    0.28993    0.45941
   0.24261   -0.15586   -0.28111
   0.97549    0.04632    0.48772
   0.92661   -0.18038    0.33397
   0.35523    0.28927    0.45475
   0.23963   -0.15504   -0.27931
   0.97587    0.04993    0.49705
   0.92927   -0.18416    0.32751
   0.35508    0.28869    0.45012
   0.23664   -0.15423   -0.27754
   0.97632    0.05363    0.50645
   0.93196   -0.18809    0.32097
   0.35484    0.28817    0.44552
   0.23364   -0.15343   -0.27579
   0.97684    0.05740    0.51592
   0.93468   -0.19215    0.31435
   0.35450    0.28772    0.44094
   0.23064   -0.15263   -0.27406
   0.97743    0.06126    0.52547
   0.93743   -0.19635    0.30765
   0.35407    0.28734    0.43639
   0.22765   -0.15185   -0.27234
   0.97807    0.06519    0.53509
   0.94021   -0.20067    0.30086
   0.35355    0.28702    0.43186
   0.22465   -0.15108   -0.27065
   0.97878    0.06918    0.54479
   0.94303   -0.20513    0.29400
   0.35293    0.28678    0.42736
   0.22164   -0.15032   -0.26897
   0.97954    0.07325    0.55457
   0.94588   -0.20970    0.28705
   0.35224    0.28659    0.42287
   0.21864   -0.14957   -0.26732
   0.98036    0.07737    0.56442
   0.94876   -0.21439    0.28002
   0.35145    0.28647    0.41842
   0.21564   -0.14883   -0.26567
   0.98122    0.08155    0.57435
   0.95168   -0.21919    0.27291
   0.35058    0.28642    0.41398
   0.21265   -0.14811   -0.26405
   0.98213    0.08579    0.58435
   0.95464   -0.22410    0.26573
   0.34963    0.28642    0.40957
   0.20965   -0.14739   -0.26244
   0.98308    0.09008    0.59441
   0.95763   -0.22911    0.25846
   0.34861    0.28649    0.40517
   0.20666   -0.14669   -0.26085
   0.98407    0.09442    0.60455
   0.96066   -0.23423    0.25112
   0.34750    0.28662    0.40080
   0.20367   -0.14600   -0.25927
   0.98510    0.09881    0.61475
   0.96373   -0.23943    0.24371
   0.34632    0.28681    0.39645
   0.20069   -0.14531   -0.25770
   0.98617    0.10323    0.62502
   0.96683   -0.24473    0.23623
   0.34507    0.28706    0.39212
   0.19771   -0.14465   -0.25615
   0.98726    0.10770    0.63535
   0.96996   -0.25011    0.22868
   0.34375    0.28737    0.38781
   0.19474   -0.14399   -0.25461
   0.98838    0.11220    0.64573
   0.97313   -0.25558    0.22107
   0.34237    0.28773    0.38352
   0.19177   -0.14334   -0.25307
   0.98952    0.11674    0.65616
   0.97634   -0.26113    0.21339
   0.34092    0.28815    0.37925
   0.18882   -0.14271   -0.25154
   0.99069    0.12131    0.66665
   0.97958   -0.26675    0.20564
   0.33941    0.28862    0.37500
   0.18587   -0.14209   -0.25003
   0.99187    0.12591    0.67718
   0.98285   -0.27244    0.19785
   0.33785    0.28914    0.37077
   0.18294   -0.14148   -0.24851
   0.99307    0.13053    0.68775
   0.98615   -0.27820    0.18999
   0.33623    0.28972    0.36656
   0.18001   -0.14088   -0.24701
   0.99428    0.13518    0.69836
   0.98948   -0.28402    0.18208
   0.33456    0.29035    0.36237
   0.17710   -0.14029   -0.24550
   0.99549    0.13984    0.70900
   0.99284   -0.28990    0.17412
   0.33285    0.29103    0.35820
   0.17421   -0.13972   -0.24400
   0.99672    0.14452    0.71967
   0.99622   -0.29583    0.16612
   0.33109    0.29175    0.35406
   0.17133   -0.13916   -0.24249
   0.99794    0.14922    0.73037
   0.99963   -0.30182    0.15807
   0.32930    0.29253    0.34993
   0.16847   -0.13861   -0.24099
   0.99916    0.15393    0.74108
   1.00307   -0.30785    0.14998
   0.32747    0.29335    0.34583
   0.16562   -0.13807   -0.23948
   1.00038    0.15865    0.75180
   1.00653   -0.31393    0.14186
   0.32560    0.29421    0.34175
   0.16280   -0.13754   -0.23797
   1.00159    0.16337    0.76253
   1.01001   -0.32004    0.13370
   0.32371    0.29512    0.33769
   0.16000   -0.13703   -0.23646
   1.00279    0.16810    0.77326
   1.01351   -0.32619    0.12551
   0.32178    0.29607    0.33365
   0.15721   -0.13653   -0.23493
   1.00398    0.17283    0.78399
   1.01702   -0.33237    0.11729
   0.31984    0.29707    0.32964
   0.15446   -0.13605   -0.23340
   1.00515    0.17756    0.79471
   1.02055   -0.33857    0.10904
   0.31788    0.29810    0.32566
   0.15173   -0.13558   -0.23186
   1.00630    0.18228    0.80542
   1.02409   -0.34480    0.10078
   0.31591    0.29917    0.32170
   0.14902   -0.13512   -0.23030
   1.00743    0.18699    0.81610
   1.02765   -0.35105    0.09250
   0.31392    0.30029    0.31776
   0.14634   -0.13467   -0.22873
   1.00853    0.19170    0.82676
   1.03121   -0.35731    0.08421
   0.31192    0.30144    0.31386
   0.14370   -0.13424   -0.22715
   1.00960    0.19639    0.83738
   1.03478   -0.36359    0.07591
   0.30992    0.30262    0.30998
   0.14108   -0.13382   -0.22555
   1.01064    0.20107    0.84797
   1.03836   -0.36987    0.06760
   0.30792    0.30384    0.30613
   0.13850   -0.13342   -0.22393
   1.01165    0.20572    0.85851
   1.04193   -0.37615    0.05929
   0.30593    0.30510    0.30231
   0.13595   -0.13303   -0.22229
   1.01262    0.21036    0.86900
   1.04551   -0.38243    0.05098
   0.30393    0.30638    0.29852
   0.13343   -0.13266   -0.22063
   1.01355    0.21497    0.87943
   1.04908   -0.38870    0.04267
   0.30195    0.30770    0.29477
   0.13096   -0.13230   -0.21894
   1.01444    0.21956    0.88980
   1.05265   -0.39496    0.03437
   0.29998    0.30906    0.29105
   0.12852   -0.13195   -0.21723
   1.01528    0.22411    0.90010
   1.05621   -0.40121    0.02609
   0.29803    0.31044    0.28736
   0.12613   -0.13163   -0.21550
   1.01607    0.22863    0.91032
   1.05977   -0.40745    0.01782
   0.29610    0.31185    0.28370
   0.12378   -0.13132   -0.21373
   1.01682    0.23312    0.92046
   1.06331   -0.41366    0.00957
   0.29419    0.31329    0.28009
   0.12147   -0.13102   -0.21194
   1.01751    0.23757    0.93051
   1.06683   -0.41984    0.00134
   0.29231    0.31476    0.27651
   0.11921   -0.13074   -0.21011
   1.01815    0.24198    0.94046
   1.07034   -0.42599   -0.00685
   0.29045    0.31625    0.27296
   0.11699   -0.13048   -0.20825
   1.01873    0.24634    0.95031
   1.07382   -0.43211   -0.01502
   0.28863    0.31778    0.26946
   0.11483   -0.13024   -0.20636
   1.01925    0.25066    0.96006
   1.07729   -0.43820   -0.02315
   0.28685    0.31932    0.26599
   0.11271   -0.13002   -0.20443
   1.01971    0.25493    0.96969
   1.08073   -0.44423   -0.03125
   0.28511    0.32089    0.26257
   0.11065   -0.12981   -0.20247
   1.02011    0.25914    0.97919
   1.08414   -0.45023   -0.03930
   0.28340    0.32249    0.25919
   0.10864   -0.12962   -0.20047
   1.02044    0.26331    0.98858
   1.08752   -0.45617   -0.04730
   0.28174    0.32410    0.25585
   0.10669   -0.12946   -0.19842
   1.02070    0.26741    0.99782
   1.09086   -0.46206   -0.05525
   0.28014    0.32574    0.25255
   0.10479   -0.12931   -0.19634
   1.02090    0.27145    1.00693
   1.09418   -0.46789   -0.06315
   0.27858    0.32741    0.24930
   0.10295   -0.12919   -0.19421
   1.02102    0.27544    1.01590
   1.09745   -0.47365   -0.07099
   0.27707    0.32909    0.24610
   0.10118   -0.12908   -0.19204
   1.02107    0.27935    1.02471
   1.10068   -0.47936   -0.07877
   0.27562    0.33079    0.24294
   0.09946   -0.12900   -0.18983
   1.02105    0.28320    1.03337
   1.10387   -0.48499   -0.08648
   0.27423    0.33251    0.23983
   0.09780   -0.12894   -0.18756
   1.02095    0.28698    1.04186
   1.10701   -0.49055   -0.09413
   0.27291    0.33425    0.23676
   0.09622   -0.12891   -0.18525
   1.02078    0.29068    1.05019
   1.11010   -0.49603   -0.10170
   0.27164    0.33601    0.23374
   0.09469   -0.12889   -0.18290
   1.02052    0.29431    1.05834
   1.11315   -0.50143   -0.10919
   0.27044    0.33779    0.23078
   0.09323   -0.12891   -0.18049
   1.02019    0.29786    1.06632
   1.11613   -0.50674   -0.11660
   0.26932    0.33958    0.22786
   0.09185   -0.12894   -0.17803
   1.01977    0.30133    1.07411
   1.11907   -0.51197   -0.12393
   0.26826    0.34139    0.22499
   0.09053   -0.12901   -0.17552
   1.01928    0.30472    1.08170
   1.12194   -0.51710   -0.13117
   0.26728    0.34321    0.22217
   0.08928   -0.12910   -0.17296
   1.01870    0.30803    1.08911
   1.12475   -0.52214   -0.13832
   0.26637    0.34505    0.21941
   0.08810   -0.12921   -0.17034
   1.01803    0.31124    1.09631
   1.12750   -0.52708   -0.14538
   0.26554    0.34691    0.21669
   0.08700   -0.12935   -0.16767
   1.01728    0.31437    1.10331
   1.13018   -0.53192   -0.15233
   0.26479    0.34877    0.21403
   0.08597   -0.12953   -0.16494
   1.01645    0.31741    1.11010
   1.13279   -0.53666   -0.15919
   0.26412    0.35066    0.21142
   0.08502   -0.12973   -0.16216
   1.01553    0.32035    1.11668
   1.13534   -0.54128   -0.16594
   0.26354    0.35255    0.20886
   0.08414   -0.12996   -0.15932
   1.01452    0.32320    1.12303
   1.13781   -0.54579   -0.17258
   0.26304    0.35446    0.20636
   0.08334   -0.13022   -0.15642
   1.01342    0.32595    1.12917
   1.14020   -0.55019   -0.17911
   0.26263    0.35638    0.20391
   0.08261   -0.13051   -0.15347
   1.01224    0.32860    1.13508
   1.14252   -0.55447   -0.18552
   0.26231    0.35831    0.20151
   0.08197   -0.13083   -0.15045
   1.01097    0.33115    1.14075
   1.14476   -0.55863   -0.19181
   0.26208    0.36025    0.19917
   0.08140   -0.13118   -0.14738
   1.00961    0.33359    1.14620
   1.14691   -0.56266   -0.19799
   0.26194    0.36220    0.19688
   0.08092   -0.13157   -0.14424
   1.00816    0.33593    1.15140
   1.14899   -0.56657   -0.20404
   0.26189    0.36417    0.19464
   0.08052   -0.13199   -0.14105
   1.00662    0.33817    1.15636
   1.15098   -0.57034   -0.20996
   0.26194    0.36614    0.19246
   0.08019   -0.13244   -0.13779
   1.00499    0.34029    1.16108
   1.15288   -0.57399   -0.21575
   0.26208    0.36812    0.19033
   0.07995   -0.13293   -0.13447
   1.00328    0.34231    1.16555
   1.15469   -0.57750   -0.22140
   0.26232    0.37011    0.18825
   0.07980   -0.13345   -0.13109
   1.00147    0.34422    1.16977
   1.15641   -0.58088   -0.22693
   0.26266    0.37211    0.18623
   0.07972   -0.13401   -0.12765
   0.99958    0.34601    1.17373
   1.15804   -0.58411   -0.23231
   0.26309    0.37412    0.18425
   0.07973   -0.13461   -0.12414
   0.99760    0.34769    1.17744
   1.15958   -0.58720   -0.23755
   0.26363    0.37613    0.18233
   0.07982   -0.13524   -0.12057
   0.99553    0.34926    1.18089
   1.16102   -0.59015   -0.24265
   0.26427    0.37816    0.18046
   0.07999   -0.13591   -0.11694
   0.99337    0.35071    1.18408
   1.16237   -0.59296   -0.24760
   0.26501    0.38018    0.17865
   0.08025   -0.13662   -0.11324
   0.99113    0.35204    1.18700
   1.16361   -0.59561   -0.25241
   0.26585    0.38222    0.17688
   0.08060   -0.13736   -0.10948
   0.98880    0.35326    1.18966
   1.16476   -0.59812   -0.25706
   0.26679    0.38426    0.17516
   0.08102   -0.13815   -0.10566
   0.98638    0.35436    1.19206
   1.16581   -0.60047   -0.26156
   0.26783    0.38631    0.17349
   0.08153   -0.13897   -0.10177
   0.98388    0.35533    1.19419
   1.16676   -0.60267   -0.26591
   0.26898    0.38836    0.17187
   0.08213   -0.13983   -0.09782
   0.98130    0.35619    1.19604
   1.16760   -0.60472   -0.27010
   0.27023    0.39042    0.17030
   0.08280   -0.14074   -0.09381
   0.97863    0.35692    1.19763
   1.16834   -0.60661   -0.27413
   0.27158    0.39249    0.16878
   0.08356   -0.14168   -0.08973
   0.97588    0.35754    1.19895
   1.16897   -0.60834   -0.27800
   0.27304    0.39455    0.16730
   0.08441   -0.14266   -0.08559
   0.97305    0.35803    1.20000
   1.16950   -0.60992   -0.28171
   0.27460    0.39662    0.16587
   0.08533   -0.14369   -0.08138
   0.97014    0.35840    1.20078
   1.16993   -0.61133   -0.28526
   0.27627    0.39870    0.16448
   0.08634   -0.14476   -0.07711
   0.96715    0.35865    1.20128
   1.17024   -0.61259   -0.28864
   0.27804    0.40078    0.16313
   0.08743   -0.14587   -0.07278
   0.96408    0.35877    1.20151
   1.17045   -0.61368   -0.29186
   0.27991    0.40286    0.16183
   0.08860   -0.14702   -0.06839
   0.96094    0.35877    1.20147
   1.17056   -0.61461   -0.29491
   0.28188    0.40495    0.16057
   0.08985   -0.14821   -0.06393
   0.95772    0.35865    1.20116
   1.17055   -0.61538   -0.29780
   0.28396    0.40704    0.15934
   0.09117   -0.14945   -0.05942
   0.95443    0.35840    1.20059
   1.17044   -0.61599   -0.30051
   0.28614    0.40913    0.15816
   0.09258   -0.15073   -0.05484
   0.95106    0.35803    1.19974
   1.17022   -0.61643   -0.30306
   0.28842    0.41122    0.15701
   0.09407   -0.15205   -0.05020
   0.94763    0.35754    1.19862
   1.16988   -0.61670   -0.30543
   0.29080    0.41332    0.15590
   0.09563   -0.15342   -0.04550
   0.94413    0.35692    1.19724
   1.16944   -0.61681   -0.30764
   0.29328    0.41541    0.15482
   0.09727   -0.15483   -0.04074
   0.94055    0.35618    1.19559
   1.16890   -0.61676   -0.30967
   0.29586    0.41751    0.15378
   0.09898   -0.15628   -0.03592
   0.93692    0.35532    1.19367
   1.16824   -0.61655   -0.31153
   0.29854    0.41961    0.15276
   0.10076   -0.15778   -0.03104
   0.93322    0.35434    1.19150
   1.16747   -0.61617   -0.31323
   0.30132    0.42171    0.15178
   0.10262   -0.15932   -0.02610
   0.92946    0.35323    1.18906
   1.16660   -0.61562   -0.31475
   0.30419    0.42381    0.15083
   0.10455   -0.16091   -0.02111
   0.92564    0.35201    1.18637
   1.16562   -0.61491   -0.31609
   0.30716    0.42592    0.14990
   0.10655   -0.16253   -0.01606
   0.92176    0.35066    1.18342
   1.16453   -0.61404   -0.31727
   0.31022    0.42802    0.14900
   0.10862   -0.16421   -0.01095
   0.91782    0.34920    1.18022
   1.16334   -0.61301   -0.31828
   0.31338    0.43012    0.14812
   0.11075   -0.16592   -0.00579
   0.91383    0.34762    1.17677
   1.16204   -0.61182   -0.31911
   0.31663    0.43222    0.14727
   0.11295   -0.16768   -0.00057
   0.90978    0.34592    1.17308
   1.16063   -0.61046   -0.31978
   0.31997    0.43433    0.14644
   0.11522   -0.16948    0.00470
   0.90569    0.34410    1.16914
   1.15912   -0.60895   -0.32027
   0.32339    0.43643    0.14562
   0.11755   -0.17133    0.01002
   0.90155    0.34217    1.16496
   1.15751   -0.60727   -0.32060
   0.32691    0.43853    0.14482
   0.11993   -0.17322    0.01540
   0.89736    0.34013    1.16054
   1.15580   -0.60544   -0.32076
   0.33051    0.44063    0.14404
   0.12238   -0.17515    0.02082
   0.89313    0.33797    1.15589
   1.15398   -0.60345   -0.32075
   0.33420    0.44273    0.14328
   0.12488   -0.17712    0.02629
   0.88886    0.33570    1.15101
   1.15206   -0.60131   -0.32058
   0.33797    0.44484    0.14252
   0.12744   -0.17914    0.03182
   0.88454    0.33332    1.14591
   1.15005   -0.59902   -0.32025
   0.34182    0.44694    0.14178
   0.13005   -0.18120    0.03739
   0.88019    0.33083    1.14059
   1.14794   -0.59657   -0.31975
   0.34575    0.44904    0.14104
   0.13272   -0.18330    0.04300
   0.87581    0.32823    1.13505
   1.14573   -0.59397   -0.31909
   0.34976    0.45114    0.14031
   0.13543   -0.18544    0.04866
   0.87139    0.32553    1.12930
   1.14342   -0.59123   -0.31827
   0.35384    0.45323    0.13958
   0.13820   -0.18762    0.05437
   0.86694    0.32272    1.12334
   1.14103   -0.58833   -0.31729
   0.35800    0.45533    0.13886
   0.14100   -0.18985    0.06012
   0.86246    0.31982    1.11718
   1.13854   -0.58530   -0.31616
   0.36224    0.45743    0.13814
   0.14385   -0.19212    0.06591
   0.85795    0.31681    1.11083
   1.13596   -0.58212   -0.31488
   0.36654    0.45953    0.13742
   0.14675   -0.19442    0.07174
   0.85342    0.31370    1.10428
   1.13329   -0.57880   -0.31344
   0.37091    0.46162    0.13670
   0.14968   -0.19677    0.07760
   0.84887    0.31049    1.09755
   1.13054   -0.57535   -0.31185
   0.37535    0.46372    0.13598
   0.15265   -0.19916    0.08351
   0.84430    0.30719    1.09063
   1.12770   -0.57175   -0.31012
   0.37985    0.46582    0.13524
   0.15565   -0.20158    0.08945
   0.83971    0.30379    1.08354
   1.12478   -0.56803   -0.30824
   0.38442    0.46791    0.13451
   0.15869   -0.20405    0.09543
   0.83511    0.30031    1.07628
   1.12178   -0.56417   -0.30622
   0.38905    0.47001    0.13376
   0.16176   -0.20655    0.10144
   0.83049    0.29673    1.06886
   1.11870   -0.56019   -0.30406
   0.39374    0.47211    0.13300
   0.16485   -0.20909    0.10749
   0.82587    0.29307    1.06127
   1.11555   -0.55608   -0.30176
   0.39848    0.47421    0.13223
   0.16797   -0.21167    0.11356
   0.82123    0.28932    1.05354
   1.11232   -0.55185   -0.29933
   0.40328    0.47631    0.13144
   0.17112   -0.21429    0.11967
   0.81659    0.28549    1.04566
   1.10901   -0.54750   -0.29677
   0.40813    0.47841    0.13064
   0.17428   -0.21695    0.12580
   0.81194    0.28158    1.03763
   1.10564   -0.54303   -0.29408
   0.41303    0.48051    0.12982
   0.17747   -0.21964    0.13196
   0.80730    0.27758    1.02948
   1.10220   -0.53845   -0.29126
   0.41798    0.48262    0.12898
   0.18067   -0.22237    0.13815
   0.80265    0.27351    1.02119
   1.09870   -0.53376   -0.28832
   0.42298    0.48473    0.12813
   0.18388   -0.22513    0.14436
   0.79800    0.26937    1.01279
   1.09514   -0.52896   -0.28527
   0.42802    0.48684    0.12725
   0.18711   -0.22794    0.15059
   0.79336    0.26516    1.00427
   1.09151   -0.52406   -0.28210
   0.43311    0.48895    0.12634
   0.19034   -0.23077    0.15684
   0.78873    0.26087    0.99564
   1.08783   -0.51905   -0.27882
   0.43823    0.49107    0.12541
   0.19358   -0.23364    0.16311
   0.78410    0.25652    0.98691
   1.08409   -0.51395   -0.27543
   0.44339    0.49320    0.12446
   0.19682   -0.23655    0.16940
   0.77949    0.25210    0.97808
   1.08030   -0.50875   -0.27193
   0.44859    0.49533    0.12347
   0.20007   -0.23949    0.17571
   0.77488    0.24762    0.96916
   1.07646   -0.50346   -0.26834
   0.45383    0.49746    0.12246
   0.20331   -0.24247    0.18203
   0.77029    0.24308    0.96016
   1.07257   -0.49808   -0.26465
   0.45910    0.49961    0.12142
   0.20655   -0.24548    0.18836
   0.76572    0.23849    0.95108
   1.06864   -0.49261   -0.26086
   0.46439    0.50176    0.12034
   0.20978   -0.24853    0.19471
   0.76116    0.23383    0.94194
   1.06467   -0.48707   -0.25699
   0.46972    0.50392    0.11924
   0.21300   -0.25160    0.20107
   0.75662    0.22913    0.93273
   1.06066   -0.48144   -0.25303
   0.47507    0.50608    0.11809
   0.21622   -0.25472    0.20743
   0.75210    0.22437    0.92346
   1.05661   -0.47574   -0.24899
   0.48045    0.50826    0.11692
   0.21941   -0.25786    0.21381
   0.74761    0.21957    0.91415
   1.05253   -0.46997   -0.24487
   0.48585    0.51045    0.11571
   0.22260   -0.26104    0.22019
   0.74314    0.21472    0.90479
   1.04842   -0.46413   -0.24068
   0.49128    0.51265    0.11446
   0.22576   -0.26426    0.22658
   0.73869    0.20983    0.89539
   1.04428   -0.45822   -0.23642
   0.49672    0.51486    0.11317
   0.22890   -0.26751    0.23297
   0.73427    0.20490    0.88596
   1.04011   -0.45226   -0.23210
   0.50218    0.51709    0.11185
   0.23202   -0.27079    0.23936
   0.72988    0.19993    0.87650
   1.03592   -0.44623   -0.22771
   0.50766    0.51933    0.11048
   0.23511   -0.27410    0.24575
   0.72551    0.19493    0.86703
   1.03172   -0.44015   -0.22327
   0.51315    0.52159    0.10908
   0.23817   -0.27745    0.25215
   0.72118    0.18989    0.85754
   1.02749   -0.43403   -0.21877
   0.51866    0.52386    0.10764
   0.24121   -0.28084    0.25854
   0.71688    0.18483    0.84805
   1.02325   -0.42785   -0.21423
   0.52418    0.52615    0.10615
   0.24421   -0.28425    0.26493
   0.71261    0.17973    0.83856
   1.01900   -0.42163   -0.20964
   0.52971    0.52846    0.10463
   0.24717   -0.28771    0.27132
   0.70837    0.17462    0.82907
   1.01475   -0.41537   -0.20502
   0.53525    0.53078    0.10307
   0.25010   -0.29120    0.27770
   0.70417    0.16948    0.81959
   1.01048   -0.40907   -0.20036
   0.54080    0.53313    0.10146
   0.25298   -0.29472    0.28408
   0.70000    0.16432    0.81013
   1.00621   -0.40273   -0.19566
   0.54635    0.53550    0.09981
   0.25583   -0.29828    0.29045
   0.69587    0.15914    0.80068
   1.00195   -0.39637   -0.19095
   0.55191    0.53789    0.09812
   0.25863   -0.30187    0.29681
   0.69178    0.15396    0.79127
   0.99768   -0.38997   -0.18620
   0.55748    0.54030    0.09639
   0.26138   -0.30551    0.30316
   0.68772    0.14876    0.78189
   0.99342   -0.38356   -0.18144
   0.56305    0.54274    0.09462
   0.26409   -0.30918    0.30951
   0.68370    0.14355    0.77254
   0.98917   -0.37712   -0.17667
   0.56862    0.54521    0.09281
   0.26674   -0.31288    0.31584
   0.67972    0.13834    0.76323
   0.98492   -0.37066   -0.17189
   0.57419    0.54769    0.09096
   0.26935   -0.31663    0.32217
   0.67577    0.13313    0.75397
   0.98069   -0.36419   -0.16710
   0.57976    0.55021    0.08907
   0.27190   -0.32042    0.32848
   0.67187    0.12791    0.74476
   0.97648   -0.35771   -0.16231
   0.58533    0.55275    0.08714
   0.27439   -0.32424    0.33477
   0.66800    0.12270    0.73561
   0.97228   -0.35122   -0.15752
   0.59090    0.55532    0.08517
   0.27683   -0.32811    0.34106
   0.66417    0.11750    0.72651
   0.96810   -0.34472   -0.15274
   0.59647    0.55792    0.08316
   0.27921   -0.33202    0.34733
   0.66038    0.11231    0.71747
   0.96394   -0.33821   -0.14797
   0.60204    0.56055    0.08112
   0.28153   -0.33597    0.35359
   0.65663    0.10712    0.70850
   0.95980   -0.33171   -0.14321
   0.60760    0.56321    0.07904
   0.28378   -0.33996    0.35984
   0.65292    0.10196    0.69960
   0.95570   -0.32521   -0.13847
   0.61316    0.56591    0.07692
   0.28598   -0.34400    0.36607
   0.64925    0.09681    0.69077
   0.95162   -0.31871   -0.13376
   0.61871    0.56863    0.07477
   0.28811   -0.34809    0.37228
   0.64561    0.09168    0.68201
   0.94757   -0.31222   -0.12907
   0.62426    0.57138    0.07259
   0.29017   -0.35222    0.37848
   0.64201    0.08657    0.67334
   0.94355   -0.30574   -0.12441
   0.62980    0.57417    0.07038
   0.29217   -0.35640    0.38467
   0.63845    0.08150    0.66474
   0.93957   -0.29927   -0.11979
   0.63534    0.57698    0.06813
   0.29410   -0.36062    0.39084
   0.63493    0.07645    0.65622
   0.93563   -0.29281   -0.11520
   0.64087    0.57983    0.06586
   0.29597   -0.36490    0.39700
   0.63144    0.07143    0.64779
   0.93172   -0.28637   -0.11065
   0.64639    0.58272    0.06355
   0.29776   -0.36922    0.40315
   0.62799    0.06646    0.63945
   0.92786   -0.27995   -0.10615
   0.65190    0.58563    0.06123
   0.29949   -0.37360    0.40928
   0.62458    0.06152    0.63119
   0.92403   -0.27355   -0.10169
   0.65740    0.58858    0.05887
   0.30115   -0.37803    0.41540
   0.62120    0.05662    0.62302
   0.92025   -0.26717   -0.09728
   0.66290    0.59156    0.05650
   0.30273   -0.38251    0.42150
   0.61785    0.05177    0.61493
   0.91652   -0.26081   -0.09293
   0.66838    0.59457    0.05410
   0.30425   -0.38704    0.42760
   0.61454    0.04696    0.60694
   0.91283   -0.25448   -0.08864
   0.67386    0.59761    0.05168
   0.30570   -0.39163    0.43368
   0.61126    0.04221    0.59904
   0.90919   -0.24818   -0.08440
   0.67932    0.60068    0.04924
   0.30708   -0.39627    0.43975
   0.60800    0.03750    0.59123
   0.90560   -0.24191   -0.08023
